786
      -0.3451070E-01      -0.1501695E-01      -0.2250000E-01
      -0.3451121E-01      -0.1000394E-01      -0.2250000E-01
      -0.3450962E-01      -0.5000000E-02      -0.2250000E-01
      -0.3450962E-01       0.0000000E+00      -0.2250000E-01
      -0.3450962E-01       0.5000000E-02      -0.2250000E-01
      -0.3450962E-01       0.1000000E-01      -0.2250000E-01
      -0.3451043E-01       0.1501357E-01      -0.2250000E-01
      -0.3450718E-01       0.2004968E-01      -0.2250000E-01
      -0.3453178E-01       0.2511862E-01      -0.2250000E-01
      -0.3457854E-01       0.3019800E-01      -0.2250000E-01
      -0.3479651E-01       0.3472341E-01      -0.2250000E-01
      -0.3020432E-01       0.3355895E-01      -0.2250000E-01
      -0.2496446E-01       0.3442613E-01      -0.2250000E-01
      -0.1998005E-01       0.3446906E-01      -0.2250000E-01
      -0.1499418E-01       0.3449254E-01      -0.2250000E-01
      -0.9998437E-02       0.3450279E-01      -0.2250000E-01
      -0.5000000E-02       0.3450962E-01      -0.2250000E-01
       0.0000000E+00       0.3450962E-01      -0.2250000E-01
       0.5000000E-02       0.3450962E-01      -0.2250000E-01
       0.1000000E-01       0.3450962E-01      -0.2250000E-01
       0.1501373E-01       0.3451047E-01      -0.2250000E-01
       0.2005027E-01       0.3450733E-01      -0.2250000E-01
       0.2512002E-01       0.3453205E-01      -0.2250000E-01
       0.3019741E-01       0.3457843E-01      -0.2250000E-01
       0.3472341E-01       0.3479651E-01      -0.2250000E-01
       0.3355859E-01       0.3020439E-01      -0.2250000E-01
       0.3442515E-01       0.2496475E-01      -0.2250000E-01
       0.3446900E-01       0.1998087E-01      -0.2250000E-01
       0.3449224E-01       0.1499460E-01      -0.2250000E-01
       0.3450210E-01       0.9998328E-02      -0.2250000E-01
       0.3450962E-01       0.5000000E-02      -0.2250000E-01
       0.3450962E-01       0.0000000E+00      -0.2250000E-01
       0.3450962E-01      -0.5000000E-02      -0.2250000E-01
       0.3450962E-01      -0.1000000E-01      -0.2250000E-01
       0.3451042E-01      -0.1501371E-01      -0.2250000E-01
       0.3450728E-01      -0.2005036E-01      -0.2250000E-01
       0.3453193E-01      -0.2512021E-01      -0.2250000E-01
       0.3457842E-01      -0.3019737E-01      -0.2250000E-01
       0.3479651E-01      -0.3472335E-01      -0.2250000E-01
       0.3020440E-01      -0.3355858E-01      -0.2250000E-01
       0.2496475E-01      -0.3442515E-01      -0.2250000E-01
       0.1998087E-01      -0.3446900E-01      -0.2250000E-01
       0.1499458E-01      -0.3449223E-01      -0.2250000E-01
       0.9998317E-02      -0.3450204E-01      -0.2250000E-01
       0.5000000E-02      -0.3450962E-01      -0.2250000E-01
       0.0000000E+00      -0.3450962E-01      -0.2250000E-01
      -0.5000000E-02      -0.3450962E-01      -0.2250000E-01
      -0.9999108E-02      -0.3450446E-01      -0.2250000E-01
      -0.1499541E-01      -0.3449466E-01      -0.2250000E-01
      -0.1998105E-01      -0.3447006E-01      -0.2250000E-01
      -0.2496449E-01      -0.3442543E-01      -0.2250000E-01
      -0.3020431E-01      -0.3355888E-01      -0.2250000E-01
      -0.3027372E-01      -0.2780088E-01      -0.2250000E-01
      -0.3012623E-01      -0.2266788E-01      -0.2250000E-01
      -0.3018335E-01      -0.1754587E-01      -0.2250000E-01
      -0.3019038E-01      -0.1251637E-01      -0.2250000E-01
      -0.3018448E-01      -0.7504432E-02      -0.2250000E-01
      -0.3017949E-01      -0.2500000E-02      -0.2250000E-01
      -0.3018091E-01       0.2502118E-02      -0.2250000E-01
      -0.3018390E-01       0.7505202E-02      -0.2250000E-01
      -0.3018978E-01       0.1251536E-01      -0.2250000E-01
      -0.3018292E-01       0.1753950E-01      -0.2250000E-01
      -0.3012731E-01       0.2266776E-01      -0.2250000E-01
      -0.3027372E-01       0.2780086E-01      -0.2250000E-01
      -0.2667247E-01       0.3027225E-01      -0.2250000E-01
      -0.2242143E-01       0.3011492E-01      -0.2250000E-01
      -0.1748470E-01       0.3014119E-01      -0.2250000E-01
      -0.1249368E-01       0.3014405E-01      -0.2250000E-01
      -0.7496759E-02       0.3016563E-01      -0.2250000E-01
      -0.2499538E-02       0.3017469E-01      -0.2250000E-01
       0.2500000E-02       0.3017949E-01      -0.2250000E-01
       0.7505263E-02       0.3018384E-01      -0.2250000E-01
       0.1251543E-01       0.3018977E-01      -0.2250000E-01
       0.1753968E-01       0.3018297E-01      -0.2250000E-01
       0.2266815E-01       0.3012742E-01      -0.2250000E-01
       0.2780106E-01       0.3027379E-01      -0.2250000E-01
       0.3027182E-01       0.2667252E-01      -0.2250000E-01
       0.3011401E-01       0.2242138E-01      -0.2250000E-01
       0.3014835E-01       0.1748907E-01      -0.2250000E-01
       0.3014451E-01       0.1249414E-01      -0.2250000E-01
       0.3016562E-01       0.7496710E-02      -0.2250000E-01
       0.3017488E-01       0.2499438E-02      -0.2250000E-01
       0.3017949E-01      -0.2500000E-02      -0.2250000E-01
       0.3018373E-01      -0.7505196E-02      -0.2250000E-01
       0.3018974E-01      -0.1251611E-01      -0.2250000E-01
       0.3018407E-01      -0.1754610E-01      -0.2250000E-01
       0.3012731E-01      -0.2266810E-01      -0.2250000E-01
       0.3027379E-01      -0.2780106E-01      -0.2250000E-01
       0.2667252E-01      -0.3027181E-01      -0.2250000E-01
       0.2242137E-01      -0.3011400E-01      -0.2250000E-01
       0.1748905E-01      -0.3014834E-01      -0.2250000E-01
       0.1249407E-01      -0.3014407E-01      -0.2250000E-01
       0.7496529E-02      -0.3016456E-01      -0.2250000E-01
       0.2499151E-02      -0.3017466E-01      -0.2250000E-01
      -0.2500000E-02      -0.3017949E-01      -0.2250000E-01
      -0.7498753E-02      -0.3017229E-01      -0.2250000E-01
      -0.1249676E-01      -0.3015145E-01      -0.2250000E-01
      -0.1748991E-01      -0.3014907E-01      -0.2250000E-01
      -0.2242135E-01      -0.3011423E-01      -0.2250000E-01
      -0.2667238E-01      -0.3027187E-01      -0.2250000E-01
      -0.2536352E-01      -0.2551961E-01      -0.2250000E-01
      -0.2588626E-01      -0.2005252E-01      -0.2250000E-01
      -0.2589851E-01      -0.1503795E-01      -0.2250000E-01
      -0.2587615E-01      -0.1001517E-01      -0.2250000E-01
      -0.2585785E-01      -0.5000659E-02      -0.2250000E-01
      -0.2585291E-01       0.7110244E-05      -0.2250000E-01
      -0.2585769E-01       0.5013856E-02      -0.2250000E-01
      -0.2587588E-01       0.1002683E-01      -0.2250000E-01
      -0.2590653E-01       0.1504588E-01      -0.2250000E-01
      -0.2589542E-01       0.2005820E-01      -0.2250000E-01
      -0.2536443E-01       0.2552040E-01      -0.2250000E-01
      -0.2000000E-01       0.2584936E-01      -0.2250000E-01
      -0.1499249E-01       0.2571149E-01      -0.2250000E-01
      -0.9986929E-02       0.2580702E-01      -0.2250000E-01
      -0.5000506E-02       0.2582416E-01      -0.2250000E-01
       0.4107858E-05       0.2583873E-01      -0.2250000E-01
       0.5014300E-02       0.2585571E-01      -0.2250000E-01
       0.1002700E-01       0.2587547E-01      -0.2250000E-01
       0.1504599E-01       0.2590634E-01      -0.2250000E-01
       0.2005832E-01       0.2589536E-01      -0.2250000E-01
       0.2552028E-01       0.2536444E-01      -0.2250000E-01
       0.2584936E-01       0.2000000E-01      -0.2250000E-01
       0.2571203E-01       0.1499279E-01      -0.2250000E-01
       0.2580727E-01       0.9986688E-02      -0.2250000E-01
       0.2582560E-01       0.4999648E-02      -0.2250000E-01
       0.2584286E-01      -0.2729218E-05      -0.2250000E-01
       0.2585578E-01      -0.5013318E-02      -0.2250000E-01
       0.2587453E-01      -0.1002594E-01      -0.2250000E-01
       0.2590405E-01      -0.1504437E-01      -0.2250000E-01
       0.2589467E-01      -0.2005824E-01      -0.2250000E-01
       0.2536437E-01      -0.2552021E-01      -0.2250000E-01
       0.2000000E-01      -0.2584936E-01      -0.2250000E-01
       0.1499232E-01      -0.2571119E-01      -0.2250000E-01
       0.9985972E-02      -0.2580346E-01      -0.2250000E-01
       0.4995830E-02      -0.2582083E-01      -0.2250000E-01
      -0.5705468E-05      -0.2584053E-01      -0.2250000E-01
      -0.5000000E-02      -0.2584936E-01      -0.2250000E-01
      -0.9990944E-02      -0.2582225E-01      -0.2250000E-01
      -0.1499436E-01      -0.2571202E-01      -0.2250000E-01
      -0.2000000E-01      -0.2584936E-01      -0.2250000E-01
      -0.2206668E-01      -0.2199712E-01      -0.2250000E-01
      -0.2168559E-01      -0.1758921E-01      -0.2250000E-01
      -0.2161178E-01      -0.1254114E-01      -0.2250000E-01
      -0.2154417E-01      -0.7494720E-02      -0.2250000E-01
      -0.2152698E-01      -0.2477501E-02      -0.2250000E-01
      -0.2153271E-01       0.2547360E-02      -0.2250000E-01
      -0.2156577E-01       0.7584369E-02      -0.2250000E-01
      -0.2165227E-01       0.1262569E-01      -0.2250000E-01
      -0.2173260E-01       0.1761633E-01      -0.2250000E-01
      -0.2206777E-01       0.2199914E-01      -0.2250000E-01
      -0.1755563E-01       0.2079386E-01      -0.2250000E-01
      -0.1243091E-01       0.2147530E-01      -0.2250000E-01
      -0.7516447E-02       0.2145025E-01      -0.2250000E-01
      -0.2508537E-02       0.2146420E-01      -0.2250000E-01
       0.2542469E-02       0.2150420E-01      -0.2250000E-01
       0.7585130E-02       0.2155801E-01      -0.2250000E-01
       0.1262657E-01       0.2164936E-01      -0.2250000E-01
       0.1761653E-01       0.2173206E-01      -0.2250000E-01
       0.2199914E-01       0.2206776E-01      -0.2250000E-01
       0.2079404E-01       0.1755494E-01      -0.2250000E-01
       0.2147529E-01       0.1243091E-01      -0.2250000E-01
       0.2145437E-01       0.7512157E-02      -0.2250000E-01
       0.2147127E-01       0.2506572E-02      -0.2250000E-01
       0.2151299E-01      -0.2537506E-02      -0.2250000E-01
       0.2155892E-01      -0.7577929E-02      -0.2250000E-01
       0.2164370E-01      -0.1261723E-01      -0.2250000E-01
       0.2172911E-01      -0.1761297E-01      -0.2250000E-01
       0.2206769E-01      -0.2199908E-01      -0.2250000E-01
       0.1755277E-01      -0.2079070E-01      -0.2250000E-01
       0.1242987E-01      -0.2147443E-01      -0.2250000E-01
       0.7496977E-02      -0.2142933E-01      -0.2250000E-01
       0.2475726E-02      -0.2144240E-01      -0.2250000E-01
      -0.2535780E-02      -0.2152653E-01      -0.2250000E-01
      -0.7503769E-02      -0.2154074E-01      -0.2250000E-01
      -0.1244846E-01      -0.2149358E-01      -0.2250000E-01
      -0.1753062E-01      -0.2076020E-01      -0.2250000E-01
      -0.1747971E-01      -0.1513852E-01      -0.2250000E-01
      -0.1722982E-01      -0.9974882E-02      -0.2250000E-01
      -0.1719728E-01      -0.4917479E-02      -0.2250000E-01
      -0.1720922E-01       0.8250488E-04      -0.2250000E-01
      -0.1722286E-01       0.5181930E-02      -0.2250000E-01
      -0.1736078E-01       0.1032187E-01      -0.2250000E-01
      -0.1760354E-01       0.1533603E-01      -0.2250000E-01
      -0.1417496E-01       0.1756950E-01      -0.2250000E-01
      -0.1010478E-01       0.1707819E-01      -0.2250000E-01
      -0.5120069E-02       0.1689166E-01      -0.2250000E-01
       0.3908317E-04       0.1706565E-01      -0.2250000E-01
       0.5178410E-02       0.1716380E-01      -0.2250000E-01
       0.1032689E-01       0.1733629E-01      -0.2250000E-01
       0.1533788E-01       0.1759797E-01      -0.2250000E-01
       0.1757088E-01       0.1417117E-01      -0.2250000E-01
       0.1708624E-01       0.1008774E-01      -0.2250000E-01
       0.1692444E-01       0.5101394E-02      -0.2250000E-01
       0.1711240E-01      -0.3080441E-04      -0.2250000E-01
       0.1719415E-01      -0.5150008E-02      -0.2250000E-01
       0.1733500E-01      -0.1029165E-01      -0.2250000E-01
       0.1758713E-01      -0.1531781E-01      -0.2250000E-01
       0.1416261E-01      -0.1755484E-01      -0.2250000E-01
       0.1005016E-01      -0.1702446E-01      -0.2250000E-01
       0.4997386E-02      -0.1684660E-01      -0.2250000E-01
      -0.1679794E-03      -0.1709088E-01      -0.2250000E-01
      -0.5107141E-02      -0.1732283E-01      -0.2250000E-01
      -0.9904238E-02      -0.1731359E-01      -0.2250000E-01
      -0.1404272E-01      -0.1744800E-01      -0.2250000E-01
      -0.1255843E-01      -0.1263910E-01      -0.2250000E-01
      -0.1275194E-01      -0.7187962E-02      -0.2250000E-01
      -0.1296145E-01      -0.2334481E-02      -0.2250000E-01
      -0.1288250E-01       0.2716061E-02      -0.2250000E-01
      -0.1287810E-01       0.8059729E-02      -0.2250000E-01
      -0.1333734E-01       0.1329433E-01      -0.2250000E-01
      -0.8147299E-02       0.1167907E-01      -0.2250000E-01
      -0.2535665E-02       0.1246446E-01      -0.2250000E-01
       0.2695985E-02       0.1265575E-01      -0.2250000E-01
       0.8085403E-02       0.1279837E-01      -0.2250000E-01
       0.1330256E-01       0.1331433E-01      -0.2250000E-01
       0.1170685E-01       0.8066764E-02      -0.2250000E-01
       0.1260135E-01       0.2503453E-02      -0.2250000E-01
       0.1281831E-01      -0.2614481E-02      -0.2250000E-01
       0.1282709E-01      -0.7992072E-02      -0.2250000E-01
       0.1326207E-01      -0.1320717E-01      -0.2250000E-01
       0.7931450E-02      -0.1148471E-01      -0.2250000E-01
       0.2041624E-02      -0.1232451E-01      -0.2250000E-01
      -0.3020733E-02      -0.1292364E-01      -0.2250000E-01
      -0.7577105E-02      -0.1367118E-01      -0.2250000E-01
      -0.9158314E-02      -0.4561366E-02      -0.2250000E-01
      -0.7162291E-02      -0.8608169E-02      -0.2250000E-01
      -0.8604217E-02      -0.1904864E-04      -0.2250000E-01
      -0.8449390E-02       0.5434653E-02      -0.2250000E-01
      -0.4713214E-02       0.8281457E-02      -0.2250000E-01
       0.1437065E-03       0.7838453E-02      -0.2250000E-01
       0.5544094E-02       0.8272188E-02      -0.2250000E-01
       0.8386503E-02       0.4492012E-02      -0.2250000E-01
       0.8528852E-02       0.0000000E+00      -0.2250000E-01
       0.8469415E-02      -0.5348077E-02      -0.2250000E-01
       0.3810112E-02      -0.7358967E-02      -0.2250000E-01
      -0.1431529E-02      -0.8032210E-02      -0.2250000E-01
      -0.4867175E-02      -0.3682242E-02      -0.2250000E-01
      -0.3341548E-02       0.2480187E-02      -0.2250000E-01
       0.3441880E-02       0.2499482E-02      -0.2250000E-01
       0.4907081E-02      -0.2644775E-02      -0.2250000E-01
       0.3937487E-03      -0.2933256E-02      -0.2250000E-01
       0.6318244E-02      -0.1668237E-02      -0.2454913E-02
       0.6262634E-02      -0.8258636E-03      -0.2522384E-02
       0.6188749E-02      -0.1154234E-02      -0.1698602E-02
       0.6577725E-02      -0.2024581E-02      -0.1906728E-02
       0.6993167E-02      -0.1487533E-02      -0.2678638E-02
       0.6798466E-02      -0.1235815E-02      -0.2339139E-02
       0.8365417E-02      -0.2603128E-02      -0.1182377E-02
       0.9133850E-02      -0.2216518E-02      -0.1244942E-02
       0.8960648E-02      -0.3152253E-02      -0.1076454E-02
       0.8733849E-02      -0.3078070E-02      -0.1822574E-02
       0.8989246E-02      -0.2472420E-02      -0.2013305E-02
       0.9097968E-02      -0.2128517E-02      -0.2547680E-02
       0.8613958E-02      -0.1785919E-02      -0.2266150E-02
       0.9255794E-02      -0.2013993E-02      -0.2146603E-02
       0.8394439E-02      -0.2982640E-02      -0.2490358E-02
       0.8237135E-02      -0.2234675E-02      -0.2034610E-02
       0.8594166E-02      -0.2273654E-02      -0.2527425E-02
       0.9664345E-02      -0.2384998E-02      -0.2568718E-02
       0.6299613E-02      -0.3749207E-03      -0.1939129E-02
       0.7006072E-02      -0.5704580E-03      -0.2630785E-02
       0.7099262E-02      -0.2888999E-03      -0.2078221E-02
       0.7141076E-02      -0.8897980E-03      -0.2084815E-02
       0.9460085E-02      -0.1917906E-02      -0.1685782E-02
       0.9591009E-02      -0.2706236E-02      -0.1269661E-02
       0.9182925E-02      -0.2961298E-02      -0.2512289E-02
       0.9665396E-02      -0.2481715E-02      -0.1960974E-02
       0.1162406E-01       0.1904886E-03      -0.2123603E-02
       0.1109661E-01       0.5447663E-03      -0.2092260E-02
       0.1110812E-01       0.6396315E-04      -0.1939399E-02
       0.1154381E-01       0.3837160E-03      -0.1572635E-02
       0.9476521E-02      -0.1997712E-02      -0.7091196E-03
       0.1219065E-01       0.7481049E-03      -0.1898994E-02
       0.1163219E-01       0.9937069E-03      -0.2298930E-02
       0.1119943E-01      -0.2637095E-03      -0.2225765E-02
       0.1165574E-01      -0.5228193E-05      -0.2629456E-02
       0.1156430E-01      -0.5155485E-03      -0.1905881E-02
       0.1219785E-01      -0.1331697E-04      -0.1713430E-02
       0.1219331E-01      -0.4432826E-03      -0.2525175E-02
       0.1215045E-01       0.3856086E-03      -0.2544122E-02
       0.7711897E-02       0.9417885E-03      -0.2285812E-02
       0.8042616E-02       0.8914260E-03      -0.2071128E-02
       0.7819666E-02       0.5948931E-03      -0.2427140E-02
       0.8176476E-02       0.1054030E-02      -0.2370634E-02
       0.7187239E-02       0.8352127E-03      -0.1797899E-02
       0.7757659E-02       0.1109420E-02      -0.1628611E-02
       0.7679624E-02       0.1311379E-02      -0.2174520E-02
       0.7355760E-02       0.7854368E-03      -0.2542631E-02
       0.7748561E-02       0.1128370E-02      -0.2663120E-02
       0.7713081E-02      -0.1941434E-02      -0.1886108E-02
       0.8579809E-02      -0.1872531E-02      -0.1701412E-02
       0.8003063E-02      -0.1516142E-02      -0.2016187E-02
       0.7312927E-02      -0.2448319E-02      -0.1867988E-02
       0.7984868E-02      -0.2597415E-02      -0.2540020E-02
       0.7302644E-02      -0.1526550E-02      -0.2085767E-02
       0.7795932E-02      -0.1212700E-02      -0.1582293E-02
       0.7871664E-02      -0.1550222E-02      -0.2599238E-02
       0.7812838E-02      -0.2152410E-02      -0.1248482E-02
       0.7116980E-02      -0.1805687E-02      -0.1338644E-02
       0.6516881E-02       0.5526977E-03      -0.1409792E-02
       0.6722978E-02       0.5209081E-03      -0.2070285E-02
       0.7133692E-02      -0.6146981E-04      -0.1577313E-02
       0.6563783E-02       0.1250238E-02      -0.7459477E-03
       0.7073449E-02       0.1621352E-02      -0.1361908E-02
       0.7448590E-02       0.5272646E-03      -0.1203637E-02
       0.7066431E-02       0.1442667E-02      -0.2085116E-02
       0.6445172E-02       0.1182634E-02      -0.1727856E-02
       0.6850667E-02       0.1113305E-03      -0.2680271E-02
       0.6692663E-02      -0.2481818E-03      -0.2581052E-02
       0.7145644E-02      -0.2002369E-03      -0.2646833E-02
       0.6483199E-02       0.3458854E-03      -0.2600048E-02
       0.1124869E-01      -0.1075058E-02      -0.1974593E-02
       0.1134209E-01      -0.6183680E-03      -0.2527753E-02
       0.1161014E-01      -0.1256826E-02      -0.2557594E-02
       0.1101672E-01      -0.8530296E-03      -0.2592167E-02
       0.1040896E-01      -0.2128620E-02      -0.2257331E-02
       0.1061844E-01      -0.2972621E-02      -0.2556000E-02
       0.9999332E-02      -0.2724431E-02      -0.2546571E-02
       0.1102700E-01      -0.2285620E-02      -0.2579173E-02
       0.1050404E-01      -0.1616992E-02      -0.2536731E-02
       0.9922364E-02      -0.1907135E-02      -0.2075253E-02
       0.1004824E-01      -0.1981047E-02      -0.2619292E-02
       0.1024901E-01      -0.2923217E-02      -0.1869861E-02
       0.1118530E-01      -0.2711516E-02      -0.2085421E-02
       0.1100091E-01      -0.1548386E-02      -0.2202315E-02
       0.1037744E-01      -0.1561243E-02      -0.2067824E-02
       0.1144631E-01      -0.2070613E-02      -0.1830879E-02
       0.1064541E-01      -0.2308755E-02      -0.1455010E-02
       0.1173448E-01       0.2148437E-02      -0.2519823E-02
       0.1019018E-01      -0.1544637E-02      -0.1581637E-02
       0.1069611E-01      -0.1689996E-02      -0.1419290E-02
       0.1116068E-01      -0.2318370E-02      -0.7210810E-03
       0.8811052E-02       0.1932598E-02      -0.2540451E-02
       0.8347075E-02       0.2039258E-02      -0.2649004E-02
       0.8619385E-02       0.1826406E-02      -0.2103640E-02
       0.8582832E-02       0.2473042E-02      -0.2479943E-02
       0.8146333E-02       0.2167614E-02      -0.2154819E-02
       0.7579799E-02       0.1841846E-02      -0.2033476E-02
       0.7376274E-02       0.2376538E-02      -0.1695322E-02
       0.7867656E-02       0.2061616E-02      -0.2568972E-02
       0.7924949E-02       0.1596025E-02      -0.2576129E-02
       0.8370122E-02       0.1651878E-02      -0.1578257E-02
       0.8164150E-02       0.1460206E-02      -0.2271158E-02
       0.7783885E-02       0.1632724E-02      -0.1453719E-02
       0.7488991E-02       0.2828897E-02      -0.2500511E-02
       0.7482227E-02       0.1518356E-02      -0.2722359E-02
       0.6603405E-02       0.2052055E-02      -0.1952856E-02
       0.7344448E-02       0.2037593E-02      -0.2539612E-02
       0.1236083E-01       0.7742199E-03      -0.1067313E-02
       0.1258971E-01       0.3682637E-03      -0.2197434E-02
       0.6824934E-02      -0.1159004E-02      -0.1595777E-02
       0.6315997E-02      -0.6790907E-03      -0.1028225E-02
       0.6724749E-02      -0.1346828E-02      -0.8529615E-03
       0.1117362E-01       0.8018934E-05      -0.2536424E-02
       0.1075132E-01       0.1952924E-03      -0.2388610E-02
       0.1089288E-01      -0.3764977E-03      -0.2554689E-02
       0.1064502E-01      -0.1883118E-03      -0.2139711E-02
       0.1090403E-01      -0.6601122E-03      -0.2002413E-02
       0.1062545E-01      -0.8673185E-03      -0.1730414E-02
       0.1044401E-01      -0.6281000E-03      -0.1556143E-02
       0.1085143E-01      -0.5307024E-03      -0.1484489E-02
       0.1014937E-01      -0.1055132E-02      -0.1674252E-02
       0.1080706E-01      -0.1255028E-02      -0.1724317E-02
       0.1062911E-01      -0.1020123E-02      -0.1273224E-02
       0.1060675E-01      -0.1132962E-02      -0.2236654E-02
       0.1038568E-01      -0.8489278E-03      -0.2031770E-02
       0.7607976E-02      -0.1153971E-02      -0.2262351E-02
       0.7627465E-02      -0.5550092E-03      -0.1806374E-02
       0.7537539E-02      -0.5043832E-03      -0.2252302E-02
       0.9745877E-02      -0.3257044E-02      -0.2148835E-02
       0.9007223E-02      -0.2453607E-02      -0.6541353E-03
       0.1098900E-01      -0.1008786E-02      -0.7111497E-03
       0.7701264E-02       0.6981187E-04      -0.2021325E-02
       0.7388875E-02      -0.8535798E-03      -0.2632992E-02
       0.7761208E-02      -0.7035093E-03      -0.2663071E-02
       0.7895257E-02      -0.8168154E-03      -0.2401734E-02
       0.1057511E-01       0.1147976E-02      -0.2671753E-02
       0.1049114E-01       0.8302177E-03      -0.2395622E-02
       0.1090772E-01       0.1311418E-02      -0.2578969E-02
       0.1036989E-01       0.1507114E-02      -0.2076853E-02
       0.1087795E-01       0.1013040E-02      -0.2073150E-02
       0.1103911E-01       0.8176190E-03      -0.2662513E-02
       0.1061713E-01       0.5158018E-03      -0.2005133E-02
       0.9572118E-02      -0.1884645E-02      -0.2595894E-02
       0.9215870E-02      -0.1709761E-02      -0.2569303E-02
       0.8210808E-02      -0.1954887E-02      -0.2637805E-02
       0.1034764E-01      -0.1651737E-02      -0.7166980E-03
       0.1103212E-01       0.1235449E-03      -0.1272650E-02
       0.1152513E-01      -0.1376346E-02      -0.1315152E-02
       0.1217264E-01      -0.7959190E-03      -0.1834348E-02
       0.9497784E-02       0.1408977E-02      -0.1220446E-02
       0.9891684E-02      -0.1330279E-02      -0.9820047E-03
       0.7125049E-02       0.1219022E-02      -0.2647167E-02
       0.7522312E-02       0.5743497E-03      -0.2120106E-02
       0.8418418E-02       0.1288413E-02      -0.2005801E-02
       0.1072748E-01       0.1820992E-02      -0.2555075E-02
       0.1117467E-01       0.1641358E-02      -0.2259127E-02
       0.1086026E-01       0.7394209E-03      -0.1484919E-02
       0.1130629E-01       0.3860223E-03      -0.2547835E-02
       0.8275042E-02      -0.1045772E-02      -0.9731376E-03
       0.8017023E-02      -0.8980613E-03      -0.5600570E-03
       0.7525142E-02      -0.7722389E-03      -0.6403733E-03
       0.7800017E-02      -0.5487038E-03      -0.1234987E-02
       0.7717378E-02      -0.1478225E-02      -0.7247853E-03
       0.8557854E-02      -0.1863479E-02      -0.6808389E-03
       0.9778582E-02       0.1606505E-02      -0.1807908E-02
       0.9999132E-02       0.2205276E-02      -0.1907831E-02
       0.1051862E-01       0.2043868E-02      -0.2092006E-02
       0.1001120E-01       0.1703538E-02      -0.2239436E-02
       0.9695329E-02       0.1955456E-02      -0.2545783E-02
       0.9411544E-02       0.2437874E-02      -0.2106213E-02
       0.1004789E-01       0.2741265E-02      -0.2582059E-02
       0.1020447E-01       0.1986389E-02      -0.2657520E-02
       0.1081065E-01       0.2227763E-02      -0.1443996E-02
       0.1004504E-01       0.1447398E-02      -0.1146602E-02
       0.9883852E-02       0.2075605E-02      -0.1353536E-02
       0.1018205E-01       0.2846742E-02      -0.1851255E-02
       0.9584889E-02       0.2718299E-02      -0.1433862E-02
       0.1016702E-01       0.2246606E-02      -0.7325175E-03
       0.1133002E-01       0.2064345E-02      -0.7590381E-03
       0.1041244E-01       0.1502406E-02      -0.6727507E-03
       0.1011068E-01       0.2772525E-02      -0.7272433E-03
       0.9398134E-02       0.2015709E-02      -0.7436221E-03
       0.6897315E-02       0.6455581E-03      -0.2545042E-02
       0.6161813E-02       0.8559705E-03      -0.2519361E-02
       0.5794493E-02       0.9062735E-04      -0.2421924E-02
       0.1029795E-01      -0.2829706E-02      -0.8556553E-03
       0.1017856E-01      -0.2357901E-02      -0.7074030E-03
       0.9441208E-02       0.1889275E-02      -0.2087511E-02
       0.9167978E-02       0.1888913E-02      -0.1539894E-02
       0.1069554E-01       0.7508107E-05      -0.4935483E-03
       0.1089663E-01       0.9553513E-03      -0.5921562E-03
       0.1066247E-01       0.3921927E-03      -0.1026438E-02
       0.1067464E-01      -0.2735103E-03      -0.1018430E-02
       0.1129795E-01      -0.3829442E-04      -0.7007612E-03
       0.9470714E-02       0.3351997E-02      -0.1973249E-02
       0.9335410E-02       0.2247629E-02      -0.2640894E-02
       0.8548937E-02       0.2359301E-02      -0.1814797E-02
       0.8706448E-02       0.3058823E-02      -0.2024913E-02
       0.9388520E-02       0.2865515E-02      -0.2552689E-02
       0.8300522E-02      -0.1472970E-02      -0.1418285E-02
       0.7444583E-02      -0.2556534E-02      -0.9313246E-03
       0.7805334E-02      -0.2974947E-02      -0.1903196E-02
       0.7568629E-02      -0.2954855E-03      -0.9395716E-03
       0.7830787E-02      -0.1290685E-03      -0.1585033E-02
       0.7752503E-02       0.1515210E-03      -0.1253740E-02
       0.7743830E-02       0.4271373E-03      -0.1675243E-02
       0.7948710E-02       0.6821657E-03      -0.1213580E-02
       0.1078942E-01       0.1451112E-02      -0.1379874E-02
       0.1003458E-01       0.1265176E-02      -0.2402793E-02
       0.9729697E-02       0.1284908E-02      -0.2017420E-02
       0.1021672E-01      -0.1256146E-02      -0.2660233E-02
       0.9993865E-02      -0.1527398E-02      -0.2565810E-02
       0.1048444E-01       0.1487346E-02      -0.2687003E-02
       0.9620938E-02      -0.1762033E-02      -0.1244867E-02
       0.8133963E-02       0.1004645E-02      -0.9337856E-03
       0.8337901E-02       0.1213530E-02      -0.1374545E-02
       0.7898587E-02       0.1651296E-02      -0.7443778E-03
       0.7859965E-02       0.2400023E-02      -0.1373706E-02
       0.1005000E-01      -0.1269403E-02      -0.2104053E-02
       0.7403000E-02       0.2383689E-02      -0.8414320E-03
       0.9200435E-02      -0.1448797E-02      -0.8422888E-03
       0.8773856E-02      -0.1722550E-02      -0.1269787E-02
       0.8883553E-02      -0.1456916E-02      -0.2420431E-02
       0.8944252E-02      -0.1470428E-02      -0.1677962E-02
       0.8632289E-02      -0.1334157E-02      -0.2024144E-02
       0.8381832E-02      -0.1306778E-02      -0.2406672E-02
       0.8406552E-02      -0.1636144E-02      -0.2662557E-02
       0.8694290E-02      -0.1920181E-02      -0.2691278E-02
       0.7420509E-02      -0.1319722E-02      -0.2622742E-02
       0.7364440E-02      -0.2009696E-02      -0.2565824E-02
       0.8126079E-02       0.2761197E-02      -0.2553686E-02
       0.7903801E-02       0.3053265E-02      -0.1929938E-02
       0.8459608E-02       0.2458100E-02      -0.9784845E-03
       0.8749542E-02       0.1879160E-02      -0.5719527E-03
       0.9570545E-02      -0.1477379E-02      -0.5513285E-03
       0.8847351E-02      -0.1432034E-02      -0.4452918E-03
       0.1156074E-01       0.7376901E-03      -0.1006128E-02
       0.1183609E-01      -0.4212341E-03      -0.1079487E-02
       0.1157377E-01       0.1313436E-02      -0.1475411E-02
       0.7230774E-02      -0.7972730E-03      -0.1345666E-02
       0.1020099E-01       0.1142840E-02      -0.2715377E-02
       0.9995273E-02       0.1611264E-02      -0.2689114E-02
       0.9303276E-02       0.1809214E-02      -0.2707673E-02
       0.9353245E-02       0.1528688E-02      -0.2409128E-02
       0.8609341E-02       0.1289769E-02      -0.6460481E-03
       0.9464055E-02       0.1429095E-02      -0.6221575E-03
       0.8946010E-02       0.1437269E-02      -0.1240492E-02
       0.1102103E-01      -0.1287280E-02      -0.2603747E-02
       0.1053672E-01      -0.6237747E-03      -0.2486441E-02
       0.1024228E-01      -0.1015112E-02      -0.2352630E-02
       0.1055985E-01      -0.6899870E-03      -0.4348223E-03
       0.1018792E-01      -0.9854245E-03      -0.6559358E-03
       0.1061983E-01       0.3681451E-05      -0.2656547E-02
       0.1094036E-01       0.4147338E-03      -0.2675465E-02
       0.1063353E-01       0.6470511E-03      -0.2680222E-02
       0.1209439E-01      -0.1483712E-02      -0.1909805E-02
       0.1097855E-01      -0.1655908E-02      -0.2630077E-02
       0.8319081E-02      -0.1086240E-02      -0.1551887E-02
       0.8185924E-02       0.9470182E-03      -0.1660327E-02
       0.7560214E-02       0.8550662E-03      -0.6613870E-03
       0.9906767E-02       0.3320487E-02      -0.2519483E-02
       0.9001286E-02       0.3370075E-02      -0.2520664E-02
       0.1062020E-01       0.3075737E-02      -0.2524399E-02
       0.1067141E-01       0.2441511E-02      -0.2557255E-02
       0.6843431E-02       0.2364832E-02      -0.2510896E-02
       0.6287089E-02       0.1661393E-02      -0.2512128E-02
       0.6989223E-02       0.1705897E-02      -0.2604204E-02
       0.8931885E-02       0.1494319E-02      -0.2706243E-02
       0.8475213E-02       0.1636343E-02      -0.2709115E-02
       0.8677244E-02       0.1475850E-02      -0.2419934E-02
       0.1008744E-01       0.1069537E-02      -0.1249999E-02
       0.1042484E-01       0.8129700E-03      -0.7917249E-03
       0.1005890E-01       0.1232716E-02      -0.1676211E-02
       0.1038763E-01       0.8231754E-03      -0.1694699E-02
       0.1062086E-01       0.3932710E-04      -0.1555652E-02
       0.1166127E-01       0.1429307E-02      -0.2601775E-02
       0.1150953E-01       0.2057699E-02      -0.1891789E-02
       0.7836041E-02       0.3596990E-03      -0.8095988E-03
       0.1205536E-01       0.9539786E-03      -0.2568534E-02
       0.1221139E-01       0.1475971E-02      -0.2226957E-02
       0.1024513E-01       0.1042419E-02      -0.2067946E-02
       0.8182338E-02       0.1250304E-02      -0.2662483E-02
       0.8098503E-02      -0.1031811E-02      -0.2015271E-02
       0.7837182E-02      -0.1156883E-02      -0.2653077E-02
       0.9580867E-02       0.1492925E-02      -0.2662862E-02
       0.1062074E-01      -0.1118439E-02      -0.2674626E-02
       0.1099519E-01       0.2828999E-02      -0.1983697E-02
       0.1188433E-01      -0.1947167E-02      -0.2520819E-02
       0.7243869E-02      -0.2698454E-02      -0.2462079E-02
       0.9400336E-02      -0.1493374E-02      -0.2002714E-02
       0.9757311E-02      -0.1366025E-02      -0.1702434E-02
       0.8929158E-02       0.3076358E-02      -0.9786140E-03
       0.7547936E-02       0.5672458E-04      -0.2565565E-02
       0.7307390E-02       0.9533202E-04      -0.6527292E-03
       0.8791060E-02       0.1352855E-02      -0.1703873E-02
       0.9060041E-02       0.1514048E-02      -0.2033557E-02
       0.7451606E-02      -0.4542962E-03      -0.2679827E-02
       0.7802244E-02      -0.2119900E-03      -0.2440514E-02
       0.7063864E-02      -0.4681958E-03      -0.5554040E-03
       0.6671484E-02      -0.5882659E-05      -0.8684178E-03
       0.8210139E-02      -0.1257986E-02      -0.2723285E-02
       0.7142130E-02       0.2856117E-03      -0.2606194E-02
       0.7846280E-02      -0.3197402E-03      -0.2038262E-02
       0.7994629E-02      -0.7097085E-03      -0.1699768E-02
       0.9396752E-02       0.1400066E-02      -0.1711137E-02
       0.9555988E-02      -0.1459944E-02      -0.2419176E-02
       0.8327732E-02      -0.1282430E-03       0.1205076E-02
       0.9862279E-02      -0.8331624E-03       0.1067711E-02
       0.9380867E-02       0.4631057E-03       0.1195221E-02
      -0.2822433E-01       0.2854730E-01       0.1687042E-02
       0.2854246E-01       0.2823544E-01       0.1693134E-02
       0.2825780E-01      -0.2846391E-01       0.1591850E-02
      -0.2824252E-01      -0.2862749E-01       0.1656351E-02
       0.1490959E-01      -0.2473473E-02      -0.2771989E-02
       0.1672295E-01      -0.2055253E-02      -0.1673484E-02
       0.1543511E-01      -0.9774700E-03      -0.2206871E-02
       0.1470172E-01      -0.2600259E-02      -0.1168667E-02
       0.1668122E-01       0.9845823E-04      -0.3041353E-02
       0.1379735E-01      -0.1001857E-02      -0.3311639E-02
       0.1316806E-01      -0.2245543E-02      -0.3142505E-02
       0.3164281E-02      -0.1322667E-01      -0.1493955E-02
       0.4261441E-02      -0.1667105E-01      -0.1052942E-02
       0.2934637E-02      -0.1690991E-01      -0.2224692E-02
       0.1601525E-01      -0.4061990E-02      -0.2247156E-02
       0.1961339E-01       0.1945716E-01      -0.1371084E-02
       0.1929451E-01       0.2101200E-01      -0.2250865E-02
       0.2144544E-01       0.1953615E-01      -0.1752467E-02
       0.1781417E-01       0.1889188E-01      -0.1232197E-02
       0.1673852E-01       0.1976190E-01      -0.2191736E-02
       0.1379551E-01      -0.1956381E-02      -0.2160396E-02
       0.1272455E-01      -0.3483379E-02      -0.3765797E-02
      -0.4376289E-02       0.1866575E-01      -0.2320495E-02
      -0.2923113E-02       0.2028146E-01      -0.2316254E-02
       0.1350873E-01      -0.3261548E-02      -0.2852164E-02
       0.1180019E-02      -0.2261446E-01      -0.2159865E-02
       0.3836958E-02      -0.2249353E-01      -0.1687746E-02
       0.2999729E-02      -0.2030247E-01      -0.2319023E-02
      -0.1343111E-02      -0.2239867E-01      -0.1690091E-02
       0.5037165E-03      -0.2447100E-01      -0.2108549E-02
       0.3913666E-02      -0.2462851E-01      -0.2127660E-02
      -0.3198580E-02      -0.2288667E-01      -0.1599727E-02
      -0.5302542E-02      -0.2468465E-01      -0.2320958E-02
      -0.5881313E-02      -0.2290308E-01      -0.1742552E-02
      -0.3256033E-02      -0.2061030E-01      -0.2037160E-02
      -0.2293831E-02      -0.2468337E-01      -0.2321253E-02
      -0.1483946E-01      -0.2994301E-02      -0.1909827E-02
      -0.1290486E-01      -0.2382586E-02      -0.1439461E-02
      -0.7843540E-02      -0.2231991E-01      -0.1606654E-02
      -0.1049698E-01      -0.2239827E-01      -0.1546310E-02
      -0.8489154E-02      -0.2449635E-01      -0.2125225E-02
      -0.6045565E-02      -0.2034566E-01      -0.2385952E-02
      -0.5533580E-02       0.2265164E-01      -0.1570443E-02
      -0.3346358E-02       0.2261200E-01      -0.2151565E-02
      -0.3711180E-02       0.2468736E-01      -0.2322065E-02
      -0.7672254E-02       0.2246509E-01      -0.1551188E-02
      -0.6720006E-02       0.2468841E-01      -0.2320988E-02
      -0.6003737E-02       0.2034803E-01      -0.2213570E-02
       0.2194044E-01      -0.2846159E-01      -0.1324184E-02
       0.2083488E-01      -0.2591088E-01      -0.1937457E-02
       0.2270750E-01      -0.2664981E-01      -0.2430849E-02
       0.2083495E-01      -0.2790409E-01      -0.2262951E-02
       0.2437167E-01      -0.2730984E-01      -0.1508249E-02
       0.2331741E-02       0.3687100E-02      -0.1105646E-02
       0.3814691E-02       0.4175250E-02      -0.2717260E-02
       0.2756717E-02       0.5910248E-02      -0.2202532E-02
       0.4512282E-02       0.4297613E-02      -0.1215916E-02
       0.9853333E-03       0.3097338E-02      -0.2253179E-02
       0.1408174E-01      -0.1004269E-03      -0.2407657E-02
       0.1622263E-01      -0.2777883E-01      -0.2972805E-02
       0.1472262E-01      -0.2721465E-01      -0.1779680E-02
       0.1668225E-01      -0.2499415E-01      -0.2358018E-02
       0.5408845E-02      -0.3602492E-02      -0.1713214E-02
       0.3805686E-02      -0.3427603E-02      -0.2215808E-02
       0.6017218E-02      -0.3545904E-02      -0.2801729E-02
       0.4648817E-02      -0.5987286E-02      -0.1702017E-02
       0.6044302E-02      -0.5256473E-02      -0.1090768E-02
       0.5103927E-02      -0.2509217E-02      -0.2044519E-02
       0.4185446E-02      -0.2681906E-02      -0.1153691E-02
       0.8385056E-02      -0.4737394E-02      -0.2795845E-02
       0.7460847E-02      -0.4730847E-02      -0.2150116E-02
       0.9510649E-02      -0.5005009E-02      -0.3194177E-02
       0.8373904E-02      -0.5757618E-02      -0.1210454E-02
       0.9240219E-02      -0.4950842E-02      -0.2015591E-02
       0.8952265E-02      -0.7566168E-02      -0.1627608E-02
       0.7335980E-02      -0.6716254E-02      -0.2217447E-02
       0.7830578E-02      -0.4827260E-02      -0.3302570E-02
       0.4674702E-02       0.1755618E-02      -0.1117390E-02
       0.5222322E-02       0.2399474E-02      -0.1938262E-02
      -0.2438143E-01       0.1089560E-01      -0.1851047E-02
       0.4331547E-02       0.1238428E-02      -0.2101691E-02
       0.4369481E-02       0.2564739E-02      -0.1286213E-02
       0.3431328E-02      -0.1629022E-03      -0.1340244E-02
       0.6818760E-02      -0.2278242E-01      -0.1598051E-02
       0.8988604E-02      -0.2293605E-01      -0.1613208E-02
       0.9078845E-02      -0.2031157E-01      -0.2458244E-02
      -0.9735947E-02       0.2469297E-01      -0.2321367E-02
       0.6083631E-02      -0.2033084E-01      -0.2323886E-02
       0.1526530E-01       0.1749846E-01      -0.2051794E-02
       0.2283765E-01      -0.2464077E-01      -0.1986262E-02
       0.1353592E-01       0.1859641E-01      -0.1232212E-02
       0.2569048E-01      -0.2488512E-01      -0.2241913E-02
       0.2488587E-01      -0.2828868E-01      -0.3312626E-02
      -0.1448167E-01       0.2141323E-01      -0.1802849E-02
      -0.1495554E-01       0.1790684E-01      -0.1681176E-02
      -0.1658244E-01       0.2134703E-01      -0.1520379E-02
       0.1052455E-01       0.2246503E-01      -0.1634109E-02
       0.1061279E-01       0.2550343E-01      -0.1939794E-02
       0.1331893E-01       0.2413725E-01      -0.1863785E-02
       0.1608431E-01       0.1162356E-01      -0.2227233E-02
       0.1384951E-01       0.1098218E-01      -0.1983827E-02
       0.1848303E-01       0.1697979E-01      -0.1644617E-02
      -0.2031246E-01       0.1723360E-03      -0.2278587E-02
       0.1516758E-01       0.1354508E-01      -0.1493993E-02
      -0.1463934E-01       0.2436090E-01      -0.1923673E-02
      -0.1119347E-01       0.2236134E-01      -0.1713290E-02
      -0.1201050E-01       0.2500772E-01      -0.2296453E-02
      -0.1198665E-01       0.2727424E-01      -0.2101190E-02
      -0.2034959E-01       0.3133093E-02      -0.2199042E-02
      -0.1855947E-01       0.1869955E-02      -0.2325403E-02
       0.1015913E-01       0.1590299E-01      -0.1652932E-02
      -0.4802965E-02       0.1134237E-01      -0.1603005E-02
      -0.3379258E-02       0.1275985E-01      -0.1959276E-02
      -0.6747882E-02       0.8486557E-02      -0.1045401E-02
      -0.7027602E-02       0.9813420E-02      -0.2140785E-02
      -0.3608902E-02       0.8981382E-02      -0.1572158E-02
       0.1733010E-01       0.1315524E-01      -0.2213881E-02
      -0.6150859E-02       0.1276997E-01      -0.2165077E-02
       0.1953587E-01       0.1226923E-01      -0.2298031E-02
       0.1699814E-01       0.9967086E-02      -0.2144699E-02
       0.1639937E-01       0.2825199E-01      -0.3298477E-02
       0.1515421E-01       0.2752649E-01      -0.2246769E-02
       0.1762430E-01       0.2654489E-01      -0.2222795E-02
       0.2006896E-01       0.2699024E-01      -0.1945143E-02
       0.1223344E-01       0.1190393E-01      -0.1466530E-02
       0.1221780E-01       0.1468747E-01      -0.1519105E-02
       0.1019861E-01       0.1265923E-01      -0.1902833E-02
       0.1056893E-01       0.9598972E-02      -0.1927565E-02
      -0.8011722E-02       0.1192439E-01      -0.2514733E-02
      -0.7618465E-02       0.1412048E-01      -0.1407423E-02
      -0.9650951E-02       0.1382308E-01      -0.1701903E-02
      -0.1088349E-01       0.1103503E-01      -0.1664266E-02
       0.1920898E-01      -0.2831566E-01      -0.3304372E-02
      -0.1607899E-01       0.4602137E-02      -0.2324592E-02
      -0.1605712E-01       0.1545236E-02      -0.2348231E-02
       0.1867127E-01      -0.2656204E-01      -0.2389092E-02
       0.1270680E-01       0.3410055E-02      -0.3802292E-02
       0.1342342E-01       0.2382889E-02      -0.3172468E-02
       0.1174318E-01       0.4116992E-02      -0.3141959E-02
       0.1323786E-01       0.4811951E-02      -0.3073851E-02
       0.1487084E-01       0.2452124E-02      -0.2660638E-02
      -0.1796469E-01      -0.3870688E-02      -0.1599628E-02
      -0.2026521E-01      -0.5889707E-02      -0.2322649E-02
      -0.2025227E-01      -0.2888950E-02      -0.2314555E-02
       0.2103249E-02       0.2460276E-01      -0.2067992E-02
      -0.1366452E-01      -0.5393482E-02      -0.1491740E-02
       0.2587021E-02       0.2253103E-01      -0.1555270E-02
      -0.8234440E-03       0.2282498E-01      -0.1589607E-02
       0.5954682E-04       0.2027318E-01      -0.2455012E-02
       0.5305486E-02       0.2468984E-01      -0.2322422E-02
       0.5909618E-02       0.2249925E-01      -0.1606904E-02
      -0.2259893E-02       0.1037182E-01      -0.2020970E-02
       0.1407305E-03       0.1030680E-01      -0.1851252E-02
      -0.1163761E-02       0.7778094E-02      -0.2056930E-02
      -0.7272997E-03       0.1183176E-01      -0.1791553E-02
      -0.1420880E-01      -0.1554916E-01      -0.1823879E-02
      -0.1612974E-01      -0.1702065E-01      -0.1946645E-02
      -0.1300552E-01      -0.1294484E-01      -0.1668674E-02
      -0.1582927E-01      -0.1358112E-01      -0.1711060E-02
      -0.1825821E-01      -0.1491266E-01      -0.1366221E-02
      -0.1818351E-01      -0.7380839E-03      -0.1754030E-02
      -0.1413511E-01      -0.1904884E-01      -0.2380952E-02
      -0.1205073E-01      -0.1692205E-01      -0.1623101E-02
      -0.6299715E-02       0.6030259E-02      -0.2124512E-02
      -0.8930430E-02       0.7739426E-02      -0.1805497E-02
       0.1516318E-01       0.2086247E-01      -0.1977446E-02
       0.1259324E-01       0.2081607E-01      -0.2075275E-02
       0.1865154E-01       0.4238355E-02      -0.1834796E-02
       0.1994947E-01       0.5829504E-02      -0.1619687E-02
       0.1660855E-01       0.6568206E-02      -0.1745010E-02
       0.1555194E-01       0.4706793E-02      -0.1997543E-02
       0.1691411E-01       0.2662295E-02      -0.2288791E-02
       0.1866305E-01       0.7381029E-03      -0.1959428E-02
       0.2121367E-01       0.2536820E-02      -0.1652499E-02
       0.1459652E-03       0.1427767E-01      -0.1667543E-02
       0.1937180E-02       0.1740156E-01      -0.2184863E-02
       0.2001043E-02       0.1591975E-01      -0.1036820E-02
      -0.8872351E-02      -0.4759194E-03      -0.2445096E-02
       0.4425811E-02       0.1688821E-01      -0.1835206E-02
       0.2950363E-02       0.1452129E-01      -0.2247201E-02
      -0.1223195E-01       0.2033780E-01      -0.2188671E-02
       0.1163166E-01      -0.1358578E-01      -0.1691547E-02
       0.1025236E-01      -0.1112251E-01      -0.1547152E-02
       0.9706670E-02      -0.1366366E-01      -0.1643699E-02
       0.1377043E-01      -0.1005788E-01      -0.1823530E-02
       0.1296361E-01      -0.1641745E-01      -0.1975633E-02
       0.1050800E-01      -0.1612210E-01      -0.2345166E-02
      -0.1230222E-01       0.1710645E-01      -0.2349483E-02
      -0.1586473E-01      -0.1426529E-02      -0.2171321E-02
      -0.9156357E-02       0.2036205E-01      -0.2285999E-02
      -0.1058472E-01       0.1871599E-01      -0.2483765E-02
       0.1048354E-01       0.6051092E-02      -0.3412833E-02
       0.1084030E-01       0.4612227E-02      -0.2780073E-02
       0.9065767E-02       0.4911691E-02      -0.3395987E-02
       0.9136382E-02       0.7066870E-02      -0.2298213E-02
      -0.7132418E-03       0.2471286E-01      -0.2398795E-02
      -0.1487965E-01       0.1228425E-01      -0.1513969E-02
      -0.1679077E-01       0.1234654E-01      -0.2296461E-02
      -0.1641355E-01       0.9525526E-02      -0.1647583E-02
      -0.1240015E-01       0.1273046E-01      -0.1282867E-02
      -0.1381577E-01       0.1489606E-01      -0.1850038E-02
      -0.1799383E-01       0.1615955E-01      -0.1514507E-02
       0.1776871E-01       0.2271458E-01      -0.1588340E-02
      -0.5902392E-02      -0.7824895E-02      -0.1514401E-02
      -0.6128763E-02      -0.5334232E-02      -0.2096487E-02
      -0.2322872E-02      -0.5372149E-02      -0.1927109E-02
      -0.9186446E-02      -0.5680990E-02      -0.1854286E-02
      -0.5282559E-02      -0.1045912E-01      -0.1535393E-02
      -0.2064546E-02      -0.8143067E-02      -0.1753704E-02
      -0.2538459E-04      -0.2030337E-01      -0.2477271E-02
       0.2077630E-01       0.6058466E-03      -0.2222120E-02
       0.2415245E-01      -0.1187181E-02      -0.1831701E-02
       0.2111531E-01      -0.1560902E-02      -0.1425206E-02
       0.2816925E-01       0.7563425E-02      -0.2463008E-02
       0.2814387E-01       0.4631861E-02      -0.2672184E-02
       0.2628394E-01       0.6109380E-02      -0.2336571E-02
       0.2844746E-01       0.1060014E-01      -0.2705728E-02
       0.2638395E-01       0.9098760E-02      -0.2332345E-02
      -0.2278741E-01       0.9018707E-02      -0.1609977E-02
      -0.2051285E-01       0.6127459E-02      -0.2290384E-02
      -0.2261960E-01       0.5525284E-02      -0.1827855E-02
      -0.2082462E-01       0.9142535E-02      -0.1685668E-02
      -0.2064705E-01       0.1227709E-01      -0.2241595E-02
      -0.2468937E-01       0.8331086E-02      -0.2320578E-02
       0.2816053E-01      -0.1071789E-01      -0.2862360E-02
       0.2826121E-01      -0.7624216E-02      -0.2576545E-02
       0.2637056E-01      -0.9119647E-02      -0.2334105E-02
       0.2818848E-01      -0.1393989E-01      -0.2420470E-02
       0.2637710E-01      -0.1212929E-01      -0.2334515E-02
      -0.8462599E-02       0.1659391E-01      -0.1861941E-02
      -0.1146422E-01       0.1473208E-01      -0.1785590E-02
       0.1146381E-01       0.7831738E-02      -0.1925630E-02
      -0.2252489E-01      -0.2836317E-01      -0.2404197E-02
       0.1353511E-01       0.8596584E-02      -0.2277790E-02
       0.1106833E-01       0.5748889E-02      -0.1340897E-02
       0.1386996E-01      -0.1235014E-02      -0.1442648E-02
